ply
format ascii 1.0
element vertex 595
property double x
property double y
property double z
property uchar red
property uchar green
property uchar blue
end_header
-0.024191236306729 -0.013610647181628 0.003852328153754 255 0 0
-0.022769327073552 -0.013610647181628 0.003518459860426 255 0 0
-0.021347417840376 -0.013610647181628 0.003204809825772 255 0 0
-0.019925508607199 -0.013610647181628 0.002911378049792 255 0 0
-0.018503599374022 -0.013610647181628 0.002638164532485 255 0 0
-0.017081690140845 -0.013610647181628 0.002385169273853 255 0 0
-0.015659780907668 -0.013610647181628 0.002152392273895 255 0 0
-0.014237871674491 -0.013610647181628 0.001939833532610 255 0 0
-0.012815962441315 -0.013610647181628 0.001747493050000 255 0 0
-0.011394053208138 -0.013610647181628 0.001575370826063 255 0 0
-0.009972143974961 -0.013610647181628 0.001423466860801 255 0 0
-0.008550234741784 -0.013610647181628 0.001291781154212 255 0 0
-0.007128325508607 -0.013610647181628 0.001180313706297 255 0 0
-0.005706416275430 -0.013610647181628 0.001089064517056 255 0 0
-0.004284507042254 -0.013610647181628 0.001018033586489 255 0 0
-0.002862597809077 -0.013610647181628 0.000967220914597 255 0 0
-0.001440688575900 -0.013610647181628 0.000936626501377 255 0 0
-0.000018779342723 -0.013610647181628 0.000926250346832 255 0 0
0.001403129890454 -0.013610647181628 0.000936092450961 255 0 0
0.002825039123631 -0.013610647181628 0.000966152813764 255 0 0
0.004246948356808 -0.013610647181628 0.001016431435241 255 0 0
0.005668857589984 -0.013610647181628 0.001086928315391 255 0 0
0.007090766823161 -0.013610647181628 0.001177643454216 255 0 0
0.008512676056338 -0.013610647181628 0.001288576851715 255 0 0
0.009934585289515 -0.013610647181628 0.001419728507887 255 0 0
0.011356494522692 -0.013610647181628 0.001571098422733 255 0 0
0.012778403755869 -0.013610647181628 0.001742686596254 255 0 0
0.014200312989045 -0.013610647181628 0.001934493028448 255 0 0
0.015622222222222 -0.013610647181628 0.002146517719316 255 0 0
0.017044131455399 -0.013610647181628 0.002378760668858 255 0 0
0.018466040688576 -0.013610647181628 0.002631221877075 255 0 0
0.019887949921753 -0.013610647181628 0.002903901343965 255 0 0
0.021309859154930 -0.013610647181628 0.003196799069529 255 0 0
0.022731768388106 -0.013610647181628 0.003509915053766 255 0 0
0.024153677621283 -0.013610647181628 0.003843249296678 255 0 0
-0.024191236306729 -0.011872025052192 0.003630804464439 255 0 0
-0.022769327073552 -0.011872025052192 0.003296936171111 255 0 0
-0.021347417840376 -0.011872025052192 0.002983286136457 255 0 0
-0.019925508607199 -0.011872025052192 0.002689854360477 255 0 0
-0.018503599374022 -0.011872025052192 0.002416640843171 255 0 0
-0.017081690140845 -0.011872025052192 0.002163645584539 255 0 0
-0.015659780907668 -0.011872025052192 0.001930868584580 255 0 0
-0.014237871674491 -0.011872025052192 0.001718309843296 255 0 0
-0.012815962441315 -0.011872025052192 0.001525969360685 255 0 0
-0.011394053208138 -0.011872025052192 0.001353847136749 255 0 0
-0.009972143974961 -0.011872025052192 0.001201943171486 255 0 0
-0.008550234741784 -0.011872025052192 0.001070257464897 255 0 0
-0.007128325508607 -0.011872025052192 0.000958790016983 255 0 0
-0.005706416275430 -0.011872025052192 0.000867540827742 255 0 0
-0.004284507042254 -0.011872025052192 0.000796509897175 255 0 0
-0.002862597809077 -0.011872025052192 0.000745697225282 255 0 0
-0.001440688575900 -0.011872025052192 0.000715102812063 255 0 0
-0.000018779342723 -0.011872025052192 0.000704726657518 255 0 0
0.001403129890454 -0.011872025052192 0.000714568761647 255 0 0
0.002825039123631 -0.011872025052192 0.000744629124450 255 0 0
0.004246948356808 -0.011872025052192 0.000794907745926 255 0 0
0.005668857589984 -0.011872025052192 0.000865404626077 255 0 0
0.007090766823161 -0.011872025052192 0.000956119764902 255 0 0
0.008512676056338 -0.011872025052192 0.001067053162400 255 0 0
0.009934585289515 -0.011872025052192 0.001198204818573 255 0 0
0.011356494522692 -0.011872025052192 0.001349574733419 255 0 0
0.012778403755869 -0.011872025052192 0.001521162906939 255 0 0
0.014200312989045 -0.011872025052192 0.001712969339134 255 0 0
0.015622222222222 -0.011872025052192 0.001924994030002 255 0 0
0.017044131455399 -0.011872025052192 0.002157236979544 255 0 0
0.018466040688576 -0.011872025052192 0.002409698187760 255 0 0
0.019887949921753 -0.011872025052192 0.002682377654650 255 0 0
0.021309859154930 -0.011872025052192 0.002975275380214 255 0 0
0.022731768388106 -0.011872025052192 0.003288391364452 255 0 0
0.024153677621283 -0.011872025052192 0.003621725607364 255 0 0
-0.024191236306729 -0.010133402922756 0.003439508844215 255 0 0
-0.022769327073552 -0.010133402922756 0.003105640550887 255 0 0
-0.021347417840376 -0.010133402922756 0.002791990516233 255 0 0
-0.019925508607199 -0.010133402922756 0.002498558740252 255 0 0
-0.018503599374022 -0.010133402922756 0.002225345222946 255 0 0
-0.017081690140845 -0.010133402922756 0.001972349964314 255 0 0
-0.015659780907668 -0.010133402922756 0.001739572964355 255 0 0
-0.014237871674491 -0.010133402922756 0.001527014223071 255 0 0
-0.012815962441315 -0.010133402922756 0.001334673740461 255 0 0
-0.011394053208138 -0.010133402922756 0.001162551516524 255 0 0
-0.009972143974961 -0.010133402922756 0.001010647551261 255 0 0
-0.008550234741784 -0.010133402922756 0.000878961844673 255 0 0
-0.007128325508607 -0.010133402922756 0.000767494396758 255 0 0
-0.005706416275430 -0.010133402922756 0.000676245207517 255 0 0
-0.004284507042254 -0.010133402922756 0.000605214276950 255 0 0
-0.002862597809077 -0.010133402922756 0.000554401605057 255 0 0
-0.001440688575900 -0.010133402922756 0.000523807191838 255 0 0
-0.000018779342723 -0.010133402922756 0.000513431037293 255 0 0
0.001403129890454 -0.010133402922756 0.000523273141422 255 0 0
0.002825039123631 -0.010133402922756 0.000553333504225 255 0 0
0.004246948356808 -0.010133402922756 0.000603612125702 255 0 0
0.005668857589984 -0.010133402922756 0.000674109005852 255 0 0
0.007090766823161 -0.010133402922756 0.000764824144677 255 0 0
0.008512676056338 -0.010133402922756 0.000875757542175 255 0 0
0.009934585289515 -0.010133402922756 0.001006909198348 255 0 0
0.011356494522692 -0.010133402922756 0.001158279113194 255 0 0
0.012778403755869 -0.010133402922756 0.001329867286715 255 0 0
0.014200312989045 -0.010133402922756 0.001521673718909 255 0 0
0.015622222222222 -0.010133402922756 0.001733698409777 255 0 0
0.017044131455399 -0.010133402922756 0.001965941359319 255 0 0
0.018466040688576 -0.010133402922756 0.002218402567535 255 0 0
0.019887949921753 -0.010133402922756 0.002491082034425 255 0 0
0.021309859154930 -0.010133402922756 0.002783979759989 255 0 0
0.022731768388106 -0.010133402922756 0.003097095744227 255 0 0
0.024153677621283 -0.010133402922756 0.003430429987139 255 0 0
-0.024191236306729 -0.008394780793319 0.003278441293080 255 0 0
-0.022769327073552 -0.008394780793319 0.002944572999751 255 0 0
-0.021347417840376 -0.008394780793319 0.002630922965097 255 0 0
-0.019925508607199 -0.008394780793319 0.002337491189117 255 0 0
-0.018503599374022 -0.008394780793319 0.002064277671811 255 0 0
-0.017081690140845 -0.008394780793319 0.001811282413179 255 0 0
-0.015659780907668 -0.008394780793319 0.001578505413220 255 0 0
-0.014237871674491 -0.008394780793319 0.001365946671936 255 0 0
-0.012815962441315 -0.008394780793319 0.001173606189325 255 0 0
-0.011394053208138 -0.008394780793319 0.001001483965389 255 0 0
-0.009972143974961 -0.008394780793319 0.000849580000126 255 0 0
-0.008550234741784 -0.008394780793319 0.000717894293537 255 0 0
-0.007128325508607 -0.008394780793319 0.000606426845623 255 0 0
-0.005706416275430 -0.008394780793319 0.000515177656382 255 0 0
-0.004284507042254 -0.008394780793319 0.000444146725815 255 0 0
-0.002862597809077 -0.008394780793319 0.000393334053922 255 0 0
-0.001440688575900 -0.008394780793319 0.000362739640703 255 0 0
-0.000018779342723 -0.008394780793319 0.000352363486158 255 0 0
0.001403129890454 -0.008394780793319 0.000362205590287 255 0 0
0.002825039123631 -0.008394780793319 0.000392265953090 255 0 0
0.004246948356808 -0.008394780793319 0.000442544574566 255 0 0
0.005668857589984 -0.008394780793319 0.000513041454717 255 0 0
0.007090766823161 -0.008394780793319 0.000603756593542 255 0 0
0.008512676056338 -0.008394780793319 0.000714689991040 255 0 0
0.009934585289515 -0.008394780793319 0.000845841647213 255 0 0
0.011356494522692 -0.008394780793319 0.000997211562059 255 0 0
0.012778403755869 -0.008394780793319 0.001168799735579 255 0 0
0.014200312989045 -0.008394780793319 0.001360606167774 255 0 0
0.015622222222222 -0.008394780793319 0.001572630858642 255 0 0
0.017044131455399 -0.008394780793319 0.001804873808184 255 0 0
0.018466040688576 -0.008394780793319 0.002057335016400 255 0 0
0.019887949921753 -0.008394780793319 0.002330014483290 255 0 0
0.021309859154930 -0.008394780793319 0.002622912208854 255 0 0
0.022731768388106 -0.008394780793319 0.002936028193092 255 0 0
0.024153677621283 -0.008394780793319 0.003269362436004 255 0 0
-0.024191236306729 -0.006656158663883 0.003147601811034 255 0 0
-0.022769327073552 -0.006656158663883 0.002813733517706 255 0 0
-0.021347417840376 -0.006656158663883 0.002500083483052 255 0 0
-0.019925508607199 -0.006656158663883 0.002206651707072 255 0 0
-0.018503599374022 -0.006656158663883 0.001933438189765 255 0 0
-0.017081690140845 -0.006656158663883 0.001680442931133 255 0 0
-0.015659780907668 -0.006656158663883 0.001447665931175 255 0 0
-0.014237871674491 -0.006656158663883 0.001235107189890 255 0 0
-0.012815962441315 -0.006656158663883 0.001042766707280 255 0 0
-0.011394053208138 -0.006656158663883 0.000870644483343 255 0 0
-0.009972143974961 -0.006656158663883 0.000718740518081 255 0 0
-0.008550234741784 -0.006656158663883 0.000587054811492 255 0 0
-0.007128325508607 -0.006656158663883 0.000475587363577 255 0 0
-0.005706416275430 -0.006656158663883 0.000384338174336 255 0 0
-0.004284507042254 -0.006656158663883 0.000313307243770 255 0 0
-0.002862597809077 -0.006656158663883 0.000262494571877 255 0 0
-0.001440688575900 -0.006656158663883 0.000231900158658 255 0 0
-0.000018779342723 -0.006656158663883 0.000221524004112 255 0 0
0.001403129890454 -0.006656158663883 0.000231366108241 255 0 0
0.002825039123631 -0.006656158663883 0.000261426471044 255 0 0
0.004246948356808 -0.006656158663883 0.000311705092521 255 0 0
0.005668857589984 -0.006656158663883 0.000382201972672 255 0 0
0.007090766823161 -0.006656158663883 0.000472917111496 255 0 0
0.008512676056338 -0.006656158663883 0.000583850508995 255 0 0
0.009934585289515 -0.006656158663883 0.000715002165167 255 0 0
0.011356494522692 -0.006656158663883 0.000866372080014 255 0 0
0.012778403755869 -0.006656158663883 0.001037960253534 255 0 0
0.014200312989045 -0.006656158663883 0.001229766685728 255 0 0
0.015622222222222 -0.006656158663883 0.001441791376596 255 0 0
0.017044131455399 -0.006656158663883 0.001674034326139 255 0 0
0.018466040688576 -0.006656158663883 0.001926495534355 255 0 0
0.019887949921753 -0.006656158663883 0.002199175001245 255 0 0
0.021309859154930 -0.006656158663883 0.002492072726809 255 0 0
0.022731768388106 -0.006656158663883 0.002805188711047 255 0 0
0.024153677621283 -0.006656158663883 0.003138522953958 255 0 0
-0.024191236306729 -0.004917536534447 0.003046990398078 255 0 0
-0.022769327073552 -0.004917536534447 0.002713122104750 255 0 0
-0.021347417840376 -0.004917536534447 0.002399472070096 255 0 0
-0.019925508607199 -0.004917536534447 0.002106040294116 255 0 0
-0.018503599374022 -0.004917536534447 0.001832826776810 255 0 0
-0.017081690140845 -0.004917536534447 0.001579831518177 255 0 0
-0.015659780907668 -0.004917536534447 0.001347054518219 255 0 0
-0.014237871674491 -0.004917536534447 0.001134495776935 255 0 0
-0.012815962441315 -0.004917536534447 0.000942155294324 255 0 0
-0.011394053208138 -0.004917536534447 0.000770033070387 255 0 0
-0.009972143974961 -0.004917536534447 0.000618129105125 255 0 0
-0.008550234741784 -0.004917536534447 0.000486443398536 255 0 0
-0.007128325508607 -0.004917536534447 0.000374975950621 255 0 0
-0.005706416275430 -0.004917536534447 0.000283726761381 255 0 0
-0.004284507042254 -0.004917536534447 0.000212695830814 255 0 0
-0.002862597809077 -0.004917536534447 0.000161883158921 255 0 0
-0.001440688575900 -0.004917536534447 0.000131288745702 255 0 0
-0.000018779342723 -0.004917536534447 0.000120912591157 255 0 0
0.001403129890454 -0.004917536534447 0.000130754695286 255 0 0
0.002825039123631 -0.004917536534447 0.000160815058088 255 0 0
0.004246948356808 -0.004917536534447 0.000211093679565 255 0 0
0.005668857589984 -0.004917536534447 0.000281590559716 255 0 0
0.007090766823161 -0.004917536534447 0.000372305698540 255 0 0
0.008512676056338 -0.004917536534447 0.000483239096039 255 0 0
0.009934585289515 -0.004917536534447 0.000614390752211 255 0 0
0.011356494522692 -0.004917536534447 0.000765760667058 255 0 0
0.012778403755869 -0.004917536534447 0.000937348840578 255 0 0
0.014200312989045 -0.004917536534447 0.001129155272772 255 0 0
0.015622222222222 -0.004917536534447 0.001341179963641 255 0 0
0.017044131455399 -0.004917536534447 0.001573422913183 255 0 0
0.018466040688576 -0.004917536534447 0.001825884121399 255 0 0
0.019887949921753 -0.004917536534447 0.002098563588289 255 0 0
0.021309859154930 -0.004917536534447 0.002391461313853 255 0 0
0.022731768388106 -0.004917536534447 0.002704577298091 255 0 0
0.024153677621283 -0.004917536534447 0.003037911541002 255 0 0
-0.024191236306729 -0.003178914405011 0.002976607054212 255 0 0
-0.022769327073552 -0.003178914405011 0.002642738760884 255 0 0
-0.021347417840376 -0.003178914405011 0.002329088726230 255 0 0
-0.019925508607199 -0.003178914405011 0.002035656950250 255 0 0
-0.018503599374022 -0.003178914405011 0.001762443432943 255 0 0
-0.017081690140845 -0.003178914405011 0.001509448174311 255 0 0
-0.015659780907668 -0.003178914405011 0.001276671174353 255 0 0
-0.014237871674491 -0.003178914405011 0.001064112433068 255 0 0
-0.012815962441315 -0.003178914405011 0.000871771950458 255 0 0
-0.011394053208138 -0.003178914405011 0.000699649726521 255 0 0
-0.009972143974961 -0.003178914405011 0.000547745761259 255 0 0
-0.008550234741784 -0.003178914405011 0.000416060054670 255 0 0
-0.007128325508607 -0.003178914405011 0.000304592606755 255 0 0
-0.005706416275430 -0.003178914405011 0.000213343417514 255 0 0
-0.004284507042254 -0.003178914405011 0.000142312486948 255 0 0
-0.002862597809077 -0.003178914405011 0.000091499815055 255 0 0
-0.001440688575900 -0.003178914405011 0.000060905401836 255 0 0
-0.000018779342723 -0.003178914405011 0.000050529247290 255 0 0
0.001403129890454 -0.003178914405011 0.000060371351419 255 0 0
0.002825039123631 -0.003178914405011 0.000090431714222 255 0 0
0.004246948356808 -0.003178914405011 0.000140710335699 255 0 0
0.005668857589984 -0.003178914405011 0.000211207215850 255 0 0
0.007090766823161 -0.003178914405011 0.000301922354674 255 0 0
0.008512676056338 -0.003178914405011 0.000412855752173 255 0 0
0.009934585289515 -0.003178914405011 0.000544007408345 255 0 0
0.011356494522692 -0.003178914405011 0.000695377323192 255 0 0
0.012778403755869 -0.003178914405011 0.000866965496712 255 0 0
0.014200312989045 -0.003178914405011 0.001058771928906 255 0 0
0.015622222222222 -0.003178914405011 0.001270796619774 255 0 0
0.017044131455399 -0.003178914405011 0.001503039569317 255 0 0
0.018466040688576 -0.003178914405011 0.001755500777533 255 0 0
0.019887949921753 -0.003178914405011 0.002028180244423 255 0 0
0.021309859154930 -0.003178914405011 0.002321077969987 255 0 0
0.022731768388106 -0.003178914405011 0.002634193954224 255 0 0
0.024153677621283 -0.003178914405011 0.002967528197136 255 0 0
-0.024191236306729 -0.001440292275574 0.002936451779435 255 0 0
-0.022769327073552 -0.001440292275574 0.002602583486107 255 0 0
-0.021347417840376 -0.001440292275574 0.002288933451453 255 0 0
-0.019925508607199 -0.001440292275574 0.001995501675473 255 0 0
-0.018503599374022 -0.001440292275574 0.001722288158167 255 0 0
-0.017081690140845 -0.001440292275574 0.001469292899535 255 0 0
-0.015659780907668 -0.001440292275574 0.001236515899576 255 0 0
-0.014237871674491 -0.001440292275574 0.001023957158292 255 0 0
-0.012815962441315 -0.001440292275574 0.000831616675681 255 0 0
-0.011394053208138 -0.001440292275574 0.000659494451745 255 0 0
-0.009972143974961 -0.001440292275574 0.000507590486482 255 0 0
-0.008550234741784 -0.001440292275574 0.000375904779893 255 0 0
-0.007128325508607 -0.001440292275574 0.000264437331979 255 0 0
-0.005706416275430 -0.001440292275574 0.000173188142738 255 0 0
-0.004284507042254 -0.001440292275574 0.000102157212171 255 0 0
-0.002862597809077 -0.001440292275574 0.000051344540278 255 0 0
-0.001440688575900 -0.001440292275574 0.000020750127059 255 0 0
-0.000018779342723 -0.001440292275574 0.000010373972514 255 0 0
0.001403129890454 -0.001440292275574 0.000020216076643 255 0 0
0.002825039123631 -0.001440292275574 0.000050276439446 255 0 0
0.004246948356808 -0.001440292275574 0.000100555060922 255 0 0
0.005668857589984 -0.001440292275574 0.000171051941073 255 0 0
0.007090766823161 -0.001440292275574 0.000261767079898 255 0 0
0.008512676056338 -0.001440292275574 0.000372700477396 255 0 0
0.009934585289515 -0.001440292275574 0.000503852133569 255 0 0
0.011356494522692 -0.001440292275574 0.000655222048415 255 0 0
0.012778403755869 -0.001440292275574 0.000826810221935 255 0 0
0.014200312989045 -0.001440292275574 0.001018616654130 255 0 0
0.015622222222222 -0.001440292275574 0.001230641344998 255 0 0
0.017044131455399 -0.001440292275574 0.001462884294540 255 0 0
0.018466040688576 -0.001440292275574 0.001715345502756 255 0 0
0.019887949921753 -0.001440292275574 0.001988024969646 255 0 0
0.021309859154930 -0.001440292275574 0.002280922695210 255 0 0
0.022731768388106 -0.001440292275574 0.002594038679448 255 0 0
0.024153677621283 -0.001440292275574 0.002927372922360 255 0 0
-0.024191236306729 0.000298329853862 0.002926524573749 255 0 0
-0.022769327073552 0.000298329853862 0.002592656280421 255 0 0
-0.021347417840376 0.000298329853862 0.002279006245766 255 0 0
-0.019925508607199 0.000298329853862 0.001985574469786 255 0 0
-0.018503599374022 0.000298329853862 0.001712360952480 255 0 0
-0.017081690140845 0.000298329853862 0.001459365693848 255 0 0
-0.015659780907668 0.000298329853862 0.001226588693889 255 0 0
-0.014237871674491 0.000298329853862 0.001014029952605 255 0 0
-0.012815962441315 0.000298329853862 0.000821689469994 255 0 0
-0.011394053208138 0.000298329853862 0.000649567246058 255 0 0
-0.009972143974961 0.000298329853862 0.000497663280795 255 0 0
-0.008550234741784 0.000298329853862 0.000365977574207 255 0 0
-0.007128325508607 0.000298329853862 0.000254510126292 255 0 0
-0.005706416275430 0.000298329853862 0.000163260937051 255 0 0
-0.004284507042254 0.000298329853862 0.000092230006484 255 0 0
-0.002862597809077 0.000298329853862 0.000041417334591 255 0 0
-0.001440688575900 0.000298329853862 0.000010822921372 255 0 0
-0.000018779342723 0.000298329853862 0.000000446766827 255 0 0
0.001403129890454 0.000298329853862 0.000010288870956 255 0 0
0.002825039123631 0.000298329853862 0.000040349233759 255 0 0
0.004246948356808 0.000298329853862 0.000090627855235 255 0 0
0.005668857589984 0.000298329853862 0.000161124735386 255 0 0
0.007090766823161 0.000298329853862 0.000251839874211 255 0 0
0.008512676056338 0.000298329853862 0.000362773271709 255 0 0
0.009934585289515 0.000298329853862 0.000493924927882 255 0 0
0.011356494522692 0.000298329853862 0.000645294842728 255 0 0
0.012778403755869 0.000298329853862 0.000816883016249 255 0 0
0.014200312989045 0.000298329853862 0.001008689448443 255 0 0
0.015622222222222 0.000298329853862 0.001220714139311 255 0 0
0.017044131455399 0.000298329853862 0.001452957088853 255 0 0
0.018466040688576 0.000298329853862 0.001705418297069 255 0 0
0.019887949921753 0.000298329853862 0.001978097763959 255 0 0
0.021309859154930 0.000298329853862 0.002270995489523 255 0 0
0.022731768388106 0.000298329853862 0.002584111473761 255 0 0
0.024153677621283 0.000298329853862 0.002917445716673 255 0 0
-0.024191236306729 0.002036951983299 0.002946825437151 255 0 0
-0.022769327073552 0.002036951983299 0.002612957143823 255 0 0
-0.021347417840376 0.002036951983299 0.002299307109169 255 0 0
-0.019925508607199 0.002036951983299 0.002005875333189 255 0 0
-0.018503599374022 0.002036951983299 0.001732661815883 255 0 0
-0.017081690140845 0.002036951983299 0.001479666557251 255 0 0
-0.015659780907668 0.002036951983299 0.001246889557292 255 0 0
-0.014237871674491 0.002036951983299 0.001034330816008 255 0 0
-0.012815962441315 0.002036951983299 0.000841990333397 255 0 0
-0.011394053208138 0.002036951983299 0.000669868109461 255 0 0
-0.009972143974961 0.002036951983299 0.000517964144198 255 0 0
-0.008550234741784 0.002036951983299 0.000386278437609 255 0 0
-0.007128325508607 0.002036951983299 0.000274810989695 255 0 0
-0.005706416275430 0.002036951983299 0.000183561800454 255 0 0
-0.004284507042254 0.002036951983299 0.000112530869887 255 0 0
-0.002862597809077 0.002036951983299 0.000061718197994 255 0 0
-0.001440688575900 0.002036951983299 0.000031123784775 255 0 0
-0.000018779342723 0.002036951983299 0.000020747630230 255 0 0
0.001403129890454 0.002036951983299 0.000030589734359 255 0 0
0.002825039123631 0.002036951983299 0.000060650097162 255 0 0
0.004246948356808 0.002036951983299 0.000110928718638 255 0 0
0.005668857589984 0.002036951983299 0.000181425598789 255 0 0
0.007090766823161 0.002036951983299 0.000272140737614 255 0 0
0.008512676056338 0.002036951983299 0.000383074135112 255 0 0
0.009934585289515 0.002036951983299 0.000514225791285 255 0 0
0.011356494522692 0.002036951983299 0.000665595706131 255 0 0
0.012778403755869 0.002036951983299 0.000837183879651 255 0 0
0.014200312989045 0.002036951983299 0.001028990311846 255 0 0
0.015622222222222 0.002036951983299 0.001241015002714 255 0 0
0.017044131455399 0.002036951983299 0.001473257952256 255 0 0
0.018466040688576 0.002036951983299 0.001725719160472 255 0 0
0.019887949921753 0.002036951983299 0.001998398627362 255 0 0
0.021309859154930 0.002036951983299 0.002291296352926 255 0 0
0.022731768388106 0.002036951983299 0.002604412337164 255 0 0
0.024153677621283 0.002036951983299 0.002937746580076 255 0 0
-0.024191236306729 0.003775574112735 0.002997354369644 255 0 0
-0.022769327073552 0.003775574112735 0.002663486076316 255 0 0
-0.021347417840376 0.003775574112735 0.002349836041662 255 0 0
-0.019925508607199 0.003775574112735 0.002056404265682 255 0 0
-0.018503599374022 0.003775574112735 0.001783190748375 255 0 0
-0.017081690140845 0.003775574112735 0.001530195489743 255 0 0
-0.015659780907668 0.003775574112735 0.001297418489785 255 0 0
-0.014237871674491 0.003775574112735 0.001084859748500 255 0 0
-0.012815962441315 0.003775574112735 0.000892519265890 255 0 0
-0.011394053208138 0.003775574112735 0.000720397041953 255 0 0
-0.009972143974961 0.003775574112735 0.000568493076691 255 0 0
-0.008550234741784 0.003775574112735 0.000436807370102 255 0 0
-0.007128325508607 0.003775574112735 0.000325339922187 255 0 0
-0.005706416275430 0.003775574112735 0.000234090732946 255 0 0
-0.004284507042254 0.003775574112735 0.000163059802379 255 0 0
-0.002862597809077 0.003775574112735 0.000112247130486 255 0 0
-0.001440688575900 0.003775574112735 0.000081652717267 255 0 0
-0.000018779342723 0.003775574112735 0.000071276562722 255 0 0
0.001403129890454 0.003775574112735 0.000081118666851 255 0 0
0.002825039123631 0.003775574112735 0.000111179029654 255 0 0
0.004246948356808 0.003775574112735 0.000161457651131 255 0 0
0.005668857589984 0.003775574112735 0.000231954531281 255 0 0
0.007090766823161 0.003775574112735 0.000322669670106 255 0 0
0.008512676056338 0.003775574112735 0.000433603067605 255 0 0
0.009934585289515 0.003775574112735 0.000564754723777 255 0 0
0.011356494522692 0.003775574112735 0.000716124638623 255 0 0
0.012778403755869 0.003775574112735 0.000887712812144 255 0 0
0.014200312989045 0.003775574112735 0.001079519244338 255 0 0
0.015622222222222 0.003775574112735 0.001291543935206 255 0 0
0.017044131455399 0.003775574112735 0.001523786884748 255 0 0
0.018466040688576 0.003775574112735 0.001776248092964 255 0 0
0.019887949921753 0.003775574112735 0.002048927559854 255 0 0
0.021309859154930 0.003775574112735 0.002341825285418 255 0 0
0.022731768388106 0.003775574112735 0.002654941269656 255 0 0
0.024153677621283 0.003775574112735 0.002988275512568 255 0 0
-0.024191236306729 0.005514196242171 0.003078111371226 255 0 0
-0.022769327073552 0.005514196242171 0.002744243077898 255 0 0
-0.021347417840376 0.005514196242171 0.002430593043244 255 0 0
-0.019925508607199 0.005514196242171 0.002137161267264 255 0 0
-0.018503599374022 0.005514196242171 0.001863947749957 255 0 0
-0.017081690140845 0.005514196242171 0.001610952491325 255 0 0
-0.015659780907668 0.005514196242171 0.001378175491367 255 0 0
-0.014237871674491 0.005514196242171 0.001165616750082 255 0 0
-0.012815962441315 0.005514196242171 0.000973276267472 255 0 0
-0.011394053208138 0.005514196242171 0.000801154043535 255 0 0
-0.009972143974961 0.005514196242171 0.000649250078273 255 0 0
-0.008550234741784 0.005514196242171 0.000517564371684 255 0 0
-0.007128325508607 0.005514196242171 0.000406096923769 255 0 0
-0.005706416275430 0.005514196242171 0.000314847734528 255 0 0
-0.004284507042254 0.005514196242171 0.000243816803961 255 0 0
-0.002862597809077 0.005514196242171 0.000193004132069 255 0 0
-0.001440688575900 0.005514196242171 0.000162409718850 255 0 0
-0.000018779342723 0.005514196242171 0.000152033564304 255 0 0
0.001403129890454 0.005514196242171 0.000161875668433 255 0 0
0.002825039123631 0.005514196242171 0.000191936031236 255 0 0
0.004246948356808 0.005514196242171 0.000242214652713 255 0 0
0.005668857589984 0.005514196242171 0.000312711532863 255 0 0
0.007090766823161 0.005514196242171 0.000403426671688 255 0 0
0.008512676056338 0.005514196242171 0.000514360069187 255 0 0
0.009934585289515 0.005514196242171 0.000645511725359 255 0 0
0.011356494522692 0.005514196242171 0.000796881640206 255 0 0
0.012778403755869 0.005514196242171 0.000968469813726 255 0 0
0.014200312989045 0.005514196242171 0.001160276245920 255 0 0
0.015622222222222 0.005514196242171 0.001372300936788 255 0 0
0.017044131455399 0.005514196242171 0.001604543886330 255 0 0
0.018466040688576 0.005514196242171 0.001857005094547 255 0 0
0.019887949921753 0.005514196242171 0.002129684561437 255 0 0
0.021309859154930 0.005514196242171 0.002422582287001 255 0 0
0.022731768388106 0.005514196242171 0.002735698271238 255 0 0
0.024153677621283 0.005514196242171 0.003069032514150 255 0 0
-0.024191236306729 0.007252818371607 0.003189096441898 255 0 0
-0.022769327073552 0.007252818371607 0.002855228148570 255 0 0
-0.021347417840376 0.007252818371607 0.002541578113916 255 0 0
-0.019925508607199 0.007252818371607 0.002248146337935 255 0 0
-0.018503599374022 0.007252818371607 0.001974932820629 255 0 0
-0.017081690140845 0.007252818371607 0.001721937561997 255 0 0
-0.015659780907668 0.007252818371607 0.001489160562038 255 0 0
-0.014237871674491 0.007252818371607 0.001276601820754 255 0 0
-0.012815962441315 0.007252818371607 0.001084261338144 255 0 0
-0.011394053208138 0.007252818371607 0.000912139114207 255 0 0
-0.009972143974961 0.007252818371607 0.000760235148944 255 0 0
-0.008550234741784 0.007252818371607 0.000628549442356 255 0 0
-0.007128325508607 0.007252818371607 0.000517081994441 255 0 0
-0.005706416275430 0.007252818371607 0.000425832805200 255 0 0
-0.004284507042254 0.007252818371607 0.000354801874633 255 0 0
-0.002862597809077 0.007252818371607 0.000303989202740 255 0 0
-0.001440688575900 0.007252818371607 0.000273394789521 255 0 0
-0.000018779342723 0.007252818371607 0.000263018634976 255 0 0
0.001403129890454 0.007252818371607 0.000272860739105 255 0 0
0.002825039123631 0.007252818371607 0.000302921101908 255 0 0
0.004246948356808 0.007252818371607 0.000353199723385 255 0 0
0.005668857589984 0.007252818371607 0.000423696603535 255 0 0
0.007090766823161 0.007252818371607 0.000514411742360 255 0 0
0.008512676056338 0.007252818371607 0.000625345139858 255 0 0
0.009934585289515 0.007252818371607 0.000756496796031 255 0 0
0.011356494522692 0.007252818371607 0.000907866710877 255 0 0
0.012778403755869 0.007252818371607 0.001079454884398 255 0 0
0.014200312989045 0.007252818371607 0.001271261316592 255 0 0
0.015622222222222 0.007252818371607 0.001483286007460 255 0 0
0.017044131455399 0.007252818371607 0.001715528957002 255 0 0
0.018466040688576 0.007252818371607 0.001967990165218 255 0 0
0.019887949921753 0.007252818371607 0.002240669632108 255 0 0
0.021309859154930 0.007252818371607 0.002533567357672 255 0 0
0.022731768388106 0.007252818371607 0.002846683341910 255 0 0
0.024153677621283 0.007252818371607 0.003180017584822 255 0 0
-0.024191236306729 0.008991440501044 0.003330309581659 255 0 0
-0.022769327073552 0.008991440501044 0.002996441288331 255 0 0
-0.021347417840376 0.008991440501044 0.002682791253677 255 0 0
-0.019925508607199 0.008991440501044 0.002389359477697 255 0 0
-0.018503599374022 0.008991440501044 0.002116145960391 255 0 0
-0.017081690140845 0.008991440501044 0.001863150701758 255 0 0
-0.015659780907668 0.008991440501044 0.001630373701800 255 0 0
-0.014237871674491 0.008991440501044 0.001417814960515 255 0 0
-0.012815962441315 0.008991440501044 0.001225474477905 255 0 0
-0.011394053208138 0.008991440501044 0.001053352253968 255 0 0
-0.009972143974961 0.008991440501044 0.000901448288706 255 0 0
-0.008550234741784 0.008991440501044 0.000769762582117 255 0 0
-0.007128325508607 0.008991440501044 0.000658295134202 255 0 0
-0.005706416275430 0.008991440501044 0.000567045944962 255 0 0
-0.004284507042254 0.008991440501044 0.000496015014395 255 0 0
-0.002862597809077 0.008991440501044 0.000445202342502 255 0 0
-0.001440688575900 0.008991440501044 0.000414607929283 255 0 0
-0.000018779342723 0.008991440501044 0.000404231774738 255 0 0
0.001403129890454 0.008991440501044 0.000414073878866 255 0 0
0.002825039123631 0.008991440501044 0.000444134241669 255 0 0
0.004246948356808 0.008991440501044 0.000494412863146 255 0 0
0.005668857589984 0.008991440501044 0.000564909743297 255 0 0
0.007090766823161 0.008991440501044 0.000655624882121 255 0 0
0.008512676056338 0.008991440501044 0.000766558279620 255 0 0
0.009934585289515 0.008991440501044 0.000897709935792 255 0 0
0.011356494522692 0.008991440501044 0.001049079850639 255 0 0
0.012778403755869 0.008991440501044 0.001220668024159 255 0 0
0.014200312989045 0.008991440501044 0.001412474456353 255 0 0
0.015622222222222 0.008991440501044 0.001624499147222 255 0 0
0.017044131455399 0.008991440501044 0.001856742096764 255 0 0
0.018466040688576 0.008991440501044 0.002109203304980 255 0 0
0.019887949921753 0.008991440501044 0.002381882771870 255 0 0
0.021309859154930 0.008991440501044 0.002674780497434 255 0 0
0.022731768388106 0.008991440501044 0.002987896481672 255 0 0
0.024153677621283 0.008991440501044 0.003321230724583 255 0 0
-0.024191236306729 0.010730062630480 0.003501750790510 255 0 0
-0.022769327073552 0.010730062630480 0.003167882497182 255 0 0
-0.021347417840376 0.010730062630480 0.002854232462528 255 0 0
-0.019925508607199 0.010730062630480 0.002560800686548 255 0 0
-0.018503599374022 0.010730062630480 0.002287587169242 255 0 0
-0.017081690140845 0.010730062630480 0.002034591910609 255 0 0
-0.015659780907668 0.010730062630480 0.001801814910651 255 0 0
-0.014237871674491 0.010730062630480 0.001589256169367 255 0 0
-0.012815962441315 0.010730062630480 0.001396915686756 255 0 0
-0.011394053208138 0.010730062630480 0.001224793462819 255 0 0
-0.009972143974961 0.010730062630480 0.001072889497557 255 0 0
-0.008550234741784 0.010730062630480 0.000941203790968 255 0 0
-0.007128325508607 0.010730062630480 0.000829736343053 255 0 0
-0.005706416275430 0.010730062630480 0.000738487153813 255 0 0
-0.004284507042254 0.010730062630480 0.000667456223246 255 0 0
-0.002862597809077 0.010730062630480 0.000616643551353 255 0 0
-0.001440688575900 0.010730062630480 0.000586049138134 255 0 0
-0.000018779342723 0.010730062630480 0.000575672983589 255 0 0
0.001403129890454 0.010730062630480 0.000585515087718 255 0 0
0.002825039123631 0.010730062630480 0.000615575450520 255 0 0
0.004246948356808 0.010730062630480 0.000665854071997 255 0 0
0.005668857589984 0.010730062630480 0.000736350952148 255 0 0
0.007090766823161 0.010730062630480 0.000827066090972 255 0 0
0.008512676056338 0.010730062630480 0.000937999488471 255 0 0
0.009934585289515 0.010730062630480 0.001069151144643 255 0 0
0.011356494522692 0.010730062630480 0.001220521059490 255 0 0
0.012778403755869 0.010730062630480 0.001392109233010 255 0 0
0.014200312989045 0.010730062630480 0.001583915665204 255 0 0
0.015622222222222 0.010730062630480 0.001795940356073 255 0 0
0.017044131455399 0.010730062630480 0.002028183305615 255 0 0
0.018466040688576 0.010730062630480 0.002280644513831 255 0 0
0.019887949921753 0.010730062630480 0.002553323980721 255 0 0
0.021309859154930 0.010730062630480 0.002846221706285 255 0 0
0.022731768388106 0.010730062630480 0.003159337690523 255 0 0
0.024153677621283 0.010730062630480 0.003492671933435 255 0 0
-0.024191236306729 0.012468684759916 0.003703420068451 255 0 0
-0.022769327073552 0.012468684759916 0.003369551775123 255 0 0
-0.021347417840376 0.012468684759916 0.003055901740469 255 0 0
-0.019925508607199 0.012468684759916 0.002762469964489 255 0 0
-0.018503599374022 0.012468684759916 0.002489256447182 255 0 0
-0.017081690140845 0.012468684759916 0.002236261188550 255 0 0
-0.015659780907668 0.012468684759916 0.002003484188592 255 0 0
-0.014237871674491 0.012468684759916 0.001790925447307 255 0 0
-0.012815962441315 0.012468684759916 0.001598584964697 255 0 0
-0.011394053208138 0.012468684759916 0.001426462740760 255 0 0
-0.009972143974961 0.012468684759916 0.001274558775498 255 0 0
-0.008550234741784 0.012468684759916 0.001142873068909 255 0 0
-0.007128325508607 0.012468684759916 0.001031405620994 255 0 0
-0.005706416275430 0.012468684759916 0.000940156431753 255 0 0
-0.004284507042254 0.012468684759916 0.000869125501186 255 0 0
-0.002862597809077 0.012468684759916 0.000818312829294 255 0 0
-0.001440688575900 0.012468684759916 0.000787718416075 255 0 0
-0.000018779342723 0.012468684759916 0.000777342261529 255 0 0
0.001403129890454 0.012468684759916 0.000787184365658 255 0 0
0.002825039123631 0.012468684759916 0.000817244728461 255 0 0
0.004246948356808 0.012468684759916 0.000867523349938 255 0 0
0.005668857589984 0.012468684759916 0.000938020230088 255 0 0
0.007090766823161 0.012468684759916 0.001028735368913 255 0 0
0.008512676056338 0.012468684759916 0.001139668766412 255 0 0
0.009934585289515 0.012468684759916 0.001270820422584 255 0 0
0.011356494522692 0.012468684759916 0.001422190337431 255 0 0
0.012778403755869 0.012468684759916 0.001593778510951 255 0 0
0.014200312989045 0.012468684759916 0.001785584943145 255 0 0
0.015622222222222 0.012468684759916 0.001997609634013 255 0 0
0.017044131455399 0.012468684759916 0.002229852583555 255 0 0
0.018466040688576 0.012468684759916 0.002482313791772 255 0 0
0.019887949921753 0.012468684759916 0.002754993258662 255 0 0
0.021309859154930 0.012468684759916 0.003047890984226 255 0 0
0.022731768388106 0.012468684759916 0.003361006968463 255 0 0
0.024153677621283 0.012468684759916 0.003694341211375 255 0 0
-0.024191236306729 0.014207306889353 0.003935317415481 255 0 0
-0.022769327073552 0.014207306889353 0.003601449122153 255 0 0
-0.021347417840376 0.014207306889353 0.003287799087499 255 0 0
-0.019925508607199 0.014207306889353 0.002994367311519 255 0 0
-0.018503599374022 0.014207306889353 0.002721153794213 255 0 0
-0.017081690140845 0.014207306889353 0.002468158535580 255 0 0
-0.015659780907668 0.014207306889353 0.002235381535622 255 0 0
-0.014237871674491 0.014207306889353 0.002022822794338 255 0 0
-0.012815962441315 0.014207306889353 0.001830482311727 255 0 0
-0.011394053208138 0.014207306889353 0.001658360087791 255 0 0
-0.009972143974961 0.014207306889353 0.001506456122528 255 0 0
-0.008550234741784 0.014207306889353 0.001374770415939 255 0 0
-0.007128325508607 0.014207306889353 0.001263302968025 255 0 0
-0.005706416275430 0.014207306889353 0.001172053778784 255 0 0
-0.004284507042254 0.014207306889353 0.001101022848217 255 0 0
-0.002862597809077 0.014207306889353 0.001050210176324 255 0 0
-0.001440688575900 0.014207306889353 0.001019615763105 255 0 0
-0.000018779342723 0.014207306889353 0.001009239608560 255 0 0
0.001403129890454 0.014207306889353 0.001019081712689 255 0 0
0.002825039123631 0.014207306889353 0.001049142075491 255 0 0
0.004246948356808 0.014207306889353 0.001099420696968 255 0 0
0.005668857589984 0.014207306889353 0.001169917577119 255 0 0
0.007090766823161 0.014207306889353 0.001260632715943 255 0 0
0.008512676056338 0.014207306889353 0.001371566113442 255 0 0
0.009934585289515 0.014207306889353 0.001502717769614 255 0 0
0.011356494522692 0.014207306889353 0.001654087684461 255 0 0
0.012778403755869 0.014207306889353 0.001825675857981 255 0 0
0.014200312989045 0.014207306889353 0.002017482290176 255 0 0
0.015622222222222 0.014207306889353 0.002229506981044 255 0 0
0.017044131455399 0.014207306889353 0.002461749930586 255 0 0
0.018466040688576 0.014207306889353 0.002714211138802 255 0 0
0.019887949921753 0.014207306889353 0.002986890605692 255 0 0
0.021309859154930 0.014207306889353 0.003279788331256 255 0 0
0.022731768388106 0.014207306889353 0.003592904315494 255 0 0
0.024153677621283 0.014207306889353 0.003926238558406 255 0 0
