ply
format ascii 1.0
element vertex 765
property double x
property double y
property double z
property uchar red
property uchar green
property uchar blue
end_header
0.026479591836735 -0.006214285714286 0.014795918367347 255 0 0
0.026479591836735 -0.005622448979592 0.014795918367347 255 0 0
0.026479591836735 -0.005030612244898 0.014795918367347 255 0 0
0.026479591836735 -0.004438775510204 0.014795918367347 255 0 0
0.026479591836735 -0.003846938775510 0.014795918367347 255 0 0
0.026479591836735 -0.003255102040816 0.014795918367347 255 0 0
0.026479591836735 -0.002663265306122 0.014795918367347 255 0 0
0.026479591836735 -0.002071428571429 0.014795918367347 255 0 0
0.026479591836735 -0.001479591836735 0.014795918367347 255 0 0
0.026479591836735 -0.000887755102041 0.014795918367347 255 0 0
0.026479591836735 -0.000295918367347 0.014795918367347 255 0 0
0.026479591836735 0.000295918367347 0.014795918367347 255 0 0
0.026479591836735 0.000887755102041 0.014795918367347 255 0 0
0.026479591836735 0.001479591836735 0.014795918367347 255 0 0
0.026479591836735 0.002071428571429 0.014795918367347 255 0 0
0.026479591836735 0.002663265306122 0.014795918367347 255 0 0
0.026479591836735 0.003255102040816 0.014795918367347 255 0 0
0.026479591836735 0.003846938775510 0.014795918367347 255 0 0
0.026479591836735 0.004438775510204 0.014795918367347 255 0 0
0.026479591836735 0.005030612244898 0.014795918367347 255 0 0
0.026479591836735 0.005622448979592 0.014795918367347 255 0 0
0.026479591836735 0.006214285714286 0.014795918367347 255 0 0
0.026479591836735 0.006806122448980 0.014795918367347 255 0 0
0.026479591836735 0.007397959183673 0.014795918367347 255 0 0
0.026479591836735 0.007989795918367 0.014795918367347 255 0 0
0.026479591836735 0.008581632653061 0.014795918367347 255 0 0
0.026479591836735 0.009173469387755 0.014795918367347 255 0 0
0.026479591836735 0.009765306122449 0.014795918367347 255 0 0
0.026479591836735 0.010357142857143 0.014795918367347 255 0 0
0.026479591836735 0.010948979591837 0.014795918367347 255 0 0
0.026479591836735 0.011540816326531 0.014795918367347 255 0 0
0.026479591836735 0.012132653061224 0.014795918367347 255 0 0
0.026479591836735 0.012724489795918 0.014795918367347 255 0 0
0.026479591836735 0.013316326530612 0.014795918367347 255 0 0
0.026479591836735 0.013908163265306 0.014795918367347 255 0 0
0.026479591836735 0.014500000000000 0.014795918367347 255 0 0
0.026538775510204 -0.014500000000000 0.015387755102041 255 0 0
0.026538775510204 -0.013908163265306 0.015387755102041 255 0 0
0.026538775510204 -0.013316326530612 0.015387755102041 255 0 0
0.026538775510204 -0.012724489795918 0.015387755102041 255 0 0
0.026538775510204 -0.012132653061224 0.015387755102041 255 0 0
0.026538775510204 -0.011540816326531 0.015387755102041 255 0 0
0.026538775510204 -0.010948979591837 0.015387755102041 255 0 0
0.026538775510204 -0.010357142857143 0.015387755102041 255 0 0
0.026538775510204 -0.009765306122449 0.015387755102041 255 0 0
0.026538775510204 -0.009173469387755 0.015387755102041 255 0 0
0.026538775510204 -0.008581632653061 0.015387755102041 255 0 0
0.026538775510204 -0.007989795918367 0.015387755102041 255 0 0
0.026538775510204 -0.007397959183673 0.015387755102041 255 0 0
0.026538775510204 -0.006806122448980 0.015387755102041 255 0 0
0.026538775510204 -0.006214285714286 0.015387755102041 255 0 0
0.026538775510204 -0.005622448979592 0.015387755102041 255 0 0
0.026538775510204 -0.005030612244898 0.015387755102041 255 0 0
0.026538775510204 -0.004438775510204 0.015387755102041 255 0 0
0.026538775510204 -0.003846938775510 0.015387755102041 255 0 0
0.026538775510204 -0.003255102040816 0.015387755102041 255 0 0
0.026538775510204 -0.002663265306122 0.015387755102041 255 0 0
0.026538775510204 -0.002071428571429 0.015387755102041 255 0 0
0.026538775510204 -0.001479591836735 0.015387755102041 255 0 0
0.026538775510204 -0.000887755102041 0.015387755102041 255 0 0
0.026538775510204 -0.000295918367347 0.015387755102041 255 0 0
0.026538775510204 0.000295918367347 0.015387755102041 255 0 0
0.026538775510204 0.000887755102041 0.015387755102041 255 0 0
0.026538775510204 0.001479591836735 0.015387755102041 255 0 0
0.026538775510204 0.002071428571429 0.015387755102041 255 0 0
0.026538775510204 0.002663265306122 0.015387755102041 255 0 0
0.026538775510204 0.003255102040816 0.015387755102041 255 0 0
0.026538775510204 0.003846938775510 0.015387755102041 255 0 0
0.026538775510204 0.004438775510204 0.015387755102041 255 0 0
0.026538775510204 0.005030612244898 0.015387755102041 255 0 0
0.026538775510204 0.005622448979592 0.015387755102041 255 0 0
0.026538775510204 0.006214285714286 0.015387755102041 255 0 0
0.026538775510204 0.006806122448980 0.015387755102041 255 0 0
0.026538775510204 0.007397959183673 0.015387755102041 255 0 0
0.026538775510204 0.007989795918367 0.015387755102041 255 0 0
0.026538775510204 0.008581632653061 0.015387755102041 255 0 0
0.026538775510204 0.009173469387755 0.015387755102041 255 0 0
0.026538775510204 0.009765306122449 0.015387755102041 255 0 0
0.026538775510204 0.010357142857143 0.015387755102041 255 0 0
0.026538775510204 0.010948979591837 0.015387755102041 255 0 0
0.026538775510204 0.011540816326531 0.015387755102041 255 0 0
0.026538775510204 0.012132653061224 0.015387755102041 255 0 0
0.026538775510204 0.012724489795918 0.015387755102041 255 0 0
0.026538775510204 0.013316326530612 0.015387755102041 255 0 0
0.026538775510204 0.013908163265306 0.015387755102041 255 0 0
0.026538775510204 0.014500000000000 0.015387755102041 255 0 0
0.026597959183673 -0.014500000000000 0.015979591836735 255 0 0
0.026597959183673 -0.013908163265306 0.015979591836735 255 0 0
0.026597959183673 -0.013316326530612 0.015979591836735 255 0 0
0.026597959183673 -0.012724489795918 0.015979591836735 255 0 0
0.026597959183673 -0.012132653061224 0.015979591836735 255 0 0
0.026597959183673 -0.011540816326531 0.015979591836735 255 0 0
0.026597959183673 -0.010948979591837 0.015979591836735 255 0 0
0.026597959183673 -0.010357142857143 0.015979591836735 255 0 0
0.026597959183673 -0.009765306122449 0.015979591836735 255 0 0
0.026597959183673 -0.009173469387755 0.015979591836735 255 0 0
0.026597959183673 -0.008581632653061 0.015979591836735 255 0 0
0.026597959183673 -0.007989795918367 0.015979591836735 255 0 0
0.026597959183673 -0.007397959183673 0.015979591836735 255 0 0
0.026597959183673 -0.006806122448980 0.015979591836735 255 0 0
0.026597959183673 -0.006214285714286 0.015979591836735 255 0 0
0.026597959183673 -0.005622448979592 0.015979591836735 255 0 0
0.026597959183673 -0.005030612244898 0.015979591836735 255 0 0
0.026597959183673 -0.004438775510204 0.015979591836735 255 0 0
0.026597959183673 -0.003846938775510 0.015979591836735 255 0 0
0.026597959183673 -0.003255102040816 0.015979591836735 255 0 0
0.026597959183673 -0.002663265306122 0.015979591836735 255 0 0
0.026597959183673 -0.002071428571429 0.015979591836735 255 0 0
0.026597959183673 -0.001479591836735 0.015979591836735 255 0 0
0.026597959183673 -0.000887755102041 0.015979591836735 255 0 0
0.026597959183673 -0.000295918367347 0.015979591836735 255 0 0
0.026597959183673 0.000295918367347 0.015979591836735 255 0 0
0.026597959183673 0.000887755102041 0.015979591836735 255 0 0
0.026597959183673 0.001479591836735 0.015979591836735 255 0 0
0.026597959183673 0.002071428571429 0.015979591836735 255 0 0
0.026597959183673 0.002663265306122 0.015979591836735 255 0 0
0.026597959183673 0.003255102040816 0.015979591836735 255 0 0
0.026597959183673 0.003846938775510 0.015979591836735 255 0 0
0.026597959183673 0.004438775510204 0.015979591836735 255 0 0
0.026597959183673 0.005030612244898 0.015979591836735 255 0 0
0.026597959183673 0.005622448979592 0.015979591836735 255 0 0
0.026597959183673 0.006214285714286 0.015979591836735 255 0 0
0.026597959183673 0.006806122448980 0.015979591836735 255 0 0
0.026597959183673 0.007397959183673 0.015979591836735 255 0 0
0.026597959183673 0.007989795918367 0.015979591836735 255 0 0
0.026597959183673 0.008581632653061 0.015979591836735 255 0 0
0.026597959183673 0.009173469387755 0.015979591836735 255 0 0
0.026597959183673 0.009765306122449 0.015979591836735 255 0 0
0.026597959183673 0.010357142857143 0.015979591836735 255 0 0
0.026597959183673 0.010948979591837 0.015979591836735 255 0 0
0.026597959183673 0.011540816326531 0.015979591836735 255 0 0
0.026597959183673 0.012132653061224 0.015979591836735 255 0 0
0.026597959183673 0.012724489795918 0.015979591836735 255 0 0
0.026597959183673 0.013316326530612 0.015979591836735 255 0 0
0.026597959183673 0.013908163265306 0.015979591836735 255 0 0
0.026597959183673 0.014500000000000 0.015979591836735 255 0 0
0.026657142857143 -0.014500000000000 0.016571428571429 255 0 0
0.026657142857143 -0.013908163265306 0.016571428571429 255 0 0
0.026657142857143 -0.013316326530612 0.016571428571429 255 0 0
0.026657142857143 -0.012724489795918 0.016571428571429 255 0 0
0.026657142857143 -0.012132653061224 0.016571428571429 255 0 0
0.026657142857143 -0.011540816326531 0.016571428571429 255 0 0
0.026657142857143 -0.010948979591837 0.016571428571429 255 0 0
0.026657142857143 -0.010357142857143 0.016571428571429 255 0 0
0.026657142857143 -0.009765306122449 0.016571428571429 255 0 0
0.026657142857143 -0.009173469387755 0.016571428571429 255 0 0
0.026657142857143 -0.008581632653061 0.016571428571429 255 0 0
0.026657142857143 -0.007989795918367 0.016571428571429 255 0 0
0.026657142857143 -0.007397959183673 0.016571428571429 255 0 0
0.026657142857143 -0.006806122448980 0.016571428571429 255 0 0
0.026657142857143 -0.006214285714286 0.016571428571429 255 0 0
0.026657142857143 -0.005622448979592 0.016571428571429 255 0 0
0.026657142857143 -0.005030612244898 0.016571428571429 255 0 0
0.026657142857143 -0.004438775510204 0.016571428571429 255 0 0
0.026657142857143 -0.003846938775510 0.016571428571429 255 0 0
0.026657142857143 -0.003255102040816 0.016571428571429 255 0 0
0.026657142857143 -0.002663265306122 0.016571428571429 255 0 0
0.026657142857143 -0.002071428571429 0.016571428571429 255 0 0
0.026657142857143 -0.001479591836735 0.016571428571429 255 0 0
0.026657142857143 -0.000887755102041 0.016571428571429 255 0 0
0.026657142857143 -0.000295918367347 0.016571428571429 255 0 0
0.026657142857143 0.000295918367347 0.016571428571429 255 0 0
0.026657142857143 0.000887755102041 0.016571428571429 255 0 0
0.026657142857143 0.001479591836735 0.016571428571429 255 0 0
0.026657142857143 0.002071428571429 0.016571428571429 255 0 0
0.026657142857143 0.002663265306122 0.016571428571429 255 0 0
0.026657142857143 0.003255102040816 0.016571428571429 255 0 0
0.026657142857143 0.003846938775510 0.016571428571429 255 0 0
0.026657142857143 0.004438775510204 0.016571428571429 255 0 0
0.026657142857143 0.005030612244898 0.016571428571429 255 0 0
0.026657142857143 0.005622448979592 0.016571428571429 255 0 0
0.026657142857143 0.006214285714286 0.016571428571429 255 0 0
0.026657142857143 0.006806122448980 0.016571428571429 255 0 0
0.026657142857143 0.007397959183673 0.016571428571429 255 0 0
0.026657142857143 0.007989795918367 0.016571428571429 255 0 0
0.026657142857143 0.008581632653061 0.016571428571429 255 0 0
0.026657142857143 0.009173469387755 0.016571428571429 255 0 0
0.026657142857143 0.009765306122449 0.016571428571429 255 0 0
0.026657142857143 0.010357142857143 0.016571428571429 255 0 0
0.026657142857143 0.010948979591837 0.016571428571429 255 0 0
0.026657142857143 0.011540816326531 0.016571428571429 255 0 0
0.026657142857143 0.012132653061224 0.016571428571429 255 0 0
0.026657142857143 0.012724489795918 0.016571428571429 255 0 0
0.026657142857143 0.013316326530612 0.016571428571429 255 0 0
0.026657142857143 0.013908163265306 0.016571428571429 255 0 0
0.026657142857143 0.014500000000000 0.016571428571429 255 0 0
0.026716326530612 -0.014500000000000 0.017163265306122 255 0 0
0.026716326530612 -0.013908163265306 0.017163265306122 255 0 0
0.026716326530612 -0.013316326530612 0.017163265306122 255 0 0
0.026716326530612 -0.012724489795918 0.017163265306122 255 0 0
0.026716326530612 -0.012132653061224 0.017163265306122 255 0 0
0.026716326530612 -0.011540816326531 0.017163265306122 255 0 0
0.026716326530612 -0.010948979591837 0.017163265306122 255 0 0
0.026716326530612 -0.010357142857143 0.017163265306122 255 0 0
0.026716326530612 -0.009765306122449 0.017163265306122 255 0 0
0.026716326530612 -0.009173469387755 0.017163265306122 255 0 0
0.026716326530612 -0.008581632653061 0.017163265306122 255 0 0
0.026716326530612 -0.007989795918367 0.017163265306122 255 0 0
0.026716326530612 -0.007397959183673 0.017163265306122 255 0 0
0.026716326530612 -0.006806122448980 0.017163265306122 255 0 0
0.026716326530612 -0.006214285714286 0.017163265306122 255 0 0
0.026716326530612 -0.005622448979592 0.017163265306122 255 0 0
0.026716326530612 -0.005030612244898 0.017163265306122 255 0 0
0.026716326530612 -0.004438775510204 0.017163265306122 255 0 0
0.026716326530612 -0.003846938775510 0.017163265306122 255 0 0
0.026716326530612 -0.003255102040816 0.017163265306122 255 0 0
0.026716326530612 -0.002663265306122 0.017163265306122 255 0 0
0.026716326530612 -0.002071428571429 0.017163265306122 255 0 0
0.026716326530612 -0.001479591836735 0.017163265306122 255 0 0
0.026716326530612 -0.000887755102041 0.017163265306122 255 0 0
0.026716326530612 -0.000295918367347 0.017163265306122 255 0 0
0.026716326530612 0.000295918367347 0.017163265306122 255 0 0
0.026716326530612 0.000887755102041 0.017163265306122 255 0 0
0.026716326530612 0.001479591836735 0.017163265306122 255 0 0
0.026716326530612 0.002071428571429 0.017163265306122 255 0 0
0.026716326530612 0.002663265306122 0.017163265306122 255 0 0
0.026716326530612 0.003255102040816 0.017163265306122 255 0 0
0.026716326530612 0.003846938775510 0.017163265306122 255 0 0
0.026716326530612 0.004438775510204 0.017163265306122 255 0 0
0.026716326530612 0.005030612244898 0.017163265306122 255 0 0
0.026716326530612 0.005622448979592 0.017163265306122 255 0 0
0.026716326530612 0.006214285714286 0.017163265306122 255 0 0
0.026716326530612 0.006806122448980 0.017163265306122 255 0 0
0.026716326530612 0.007397959183673 0.017163265306122 255 0 0
0.026716326530612 0.007989795918367 0.017163265306122 255 0 0
0.026716326530612 0.008581632653061 0.017163265306122 255 0 0
0.026716326530612 0.009173469387755 0.017163265306122 255 0 0
0.026716326530612 0.009765306122449 0.017163265306122 255 0 0
0.026716326530612 0.010357142857143 0.017163265306122 255 0 0
0.026716326530612 0.010948979591837 0.017163265306122 255 0 0
0.026716326530612 0.011540816326531 0.017163265306122 255 0 0
0.026716326530612 0.012132653061224 0.017163265306122 255 0 0
0.026716326530612 0.012724489795918 0.017163265306122 255 0 0
0.026716326530612 0.013316326530612 0.017163265306122 255 0 0
0.026716326530612 0.013908163265306 0.017163265306122 255 0 0
0.026716326530612 0.014500000000000 0.017163265306122 255 0 0
0.026775510204082 -0.014500000000000 0.017755102040816 255 0 0
0.026775510204082 -0.013908163265306 0.017755102040816 255 0 0
0.026775510204082 -0.013316326530612 0.017755102040816 255 0 0
0.026775510204082 -0.012724489795918 0.017755102040816 255 0 0
0.026775510204082 -0.012132653061224 0.017755102040816 255 0 0
0.026775510204082 -0.011540816326531 0.017755102040816 255 0 0
0.026775510204082 -0.010948979591837 0.017755102040816 255 0 0
0.026775510204082 -0.010357142857143 0.017755102040816 255 0 0
0.026775510204082 -0.009765306122449 0.017755102040816 255 0 0
0.026775510204082 -0.009173469387755 0.017755102040816 255 0 0
0.026775510204082 -0.008581632653061 0.017755102040816 255 0 0
0.026775510204082 -0.007989795918367 0.017755102040816 255 0 0
0.026775510204082 -0.007397959183673 0.017755102040816 255 0 0
0.026775510204082 -0.006806122448980 0.017755102040816 255 0 0
0.026775510204082 -0.006214285714286 0.017755102040816 255 0 0
0.026775510204082 -0.005622448979592 0.017755102040816 255 0 0
0.026775510204082 -0.005030612244898 0.017755102040816 255 0 0
0.026775510204082 -0.004438775510204 0.017755102040816 255 0 0
0.026775510204082 -0.003846938775510 0.017755102040816 255 0 0
0.026775510204082 -0.003255102040816 0.017755102040816 255 0 0
0.026775510204082 -0.002663265306122 0.017755102040816 255 0 0
0.026775510204082 -0.002071428571429 0.017755102040816 255 0 0
0.026775510204082 -0.001479591836735 0.017755102040816 255 0 0
0.026775510204082 -0.000887755102041 0.017755102040816 255 0 0
0.026775510204082 -0.000295918367347 0.017755102040816 255 0 0
0.026775510204082 0.000295918367347 0.017755102040816 255 0 0
0.026775510204082 0.000887755102041 0.017755102040816 255 0 0
0.026775510204082 0.001479591836735 0.017755102040816 255 0 0
0.026775510204082 0.002071428571429 0.017755102040816 255 0 0
0.026775510204082 0.002663265306122 0.017755102040816 255 0 0
0.026775510204082 0.003255102040816 0.017755102040816 255 0 0
0.026775510204082 0.003846938775510 0.017755102040816 255 0 0
0.026775510204082 0.004438775510204 0.017755102040816 255 0 0
0.026775510204082 0.005030612244898 0.017755102040816 255 0 0
0.026775510204082 0.005622448979592 0.017755102040816 255 0 0
0.026775510204082 0.006214285714286 0.017755102040816 255 0 0
0.026775510204082 0.006806122448980 0.017755102040816 255 0 0
0.026775510204082 0.007397959183673 0.017755102040816 255 0 0
0.026775510204082 0.007989795918367 0.017755102040816 255 0 0
0.026775510204082 0.008581632653061 0.017755102040816 255 0 0
0.026775510204082 0.009173469387755 0.017755102040816 255 0 0
0.026775510204082 0.009765306122449 0.017755102040816 255 0 0
0.026775510204082 0.010357142857143 0.017755102040816 255 0 0
0.026775510204082 0.010948979591837 0.017755102040816 255 0 0
0.026775510204082 0.011540816326531 0.017755102040816 255 0 0
0.026775510204082 0.012132653061224 0.017755102040816 255 0 0
0.026775510204082 0.012724489795918 0.017755102040816 255 0 0
0.026775510204082 0.013316326530612 0.017755102040816 255 0 0
0.026775510204082 0.013908163265306 0.017755102040816 255 0 0
0.026775510204082 0.014500000000000 0.017755102040816 255 0 0
0.026834693877551 -0.014500000000000 0.018346938775510 255 0 0
0.026834693877551 -0.013908163265306 0.018346938775510 255 0 0
0.026834693877551 -0.013316326530612 0.018346938775510 255 0 0
0.026834693877551 -0.012724489795918 0.018346938775510 255 0 0
0.026834693877551 -0.012132653061224 0.018346938775510 255 0 0
0.026834693877551 -0.011540816326531 0.018346938775510 255 0 0
0.026834693877551 -0.010948979591837 0.018346938775510 255 0 0
0.026834693877551 -0.010357142857143 0.018346938775510 255 0 0
0.026834693877551 -0.009765306122449 0.018346938775510 255 0 0
0.026834693877551 -0.009173469387755 0.018346938775510 255 0 0
0.026834693877551 -0.008581632653061 0.018346938775510 255 0 0
0.026834693877551 -0.007989795918367 0.018346938775510 255 0 0
0.026834693877551 -0.007397959183673 0.018346938775510 255 0 0
0.026834693877551 -0.006806122448980 0.018346938775510 255 0 0
0.026834693877551 -0.006214285714286 0.018346938775510 255 0 0
0.026834693877551 -0.005622448979592 0.018346938775510 255 0 0
0.026834693877551 -0.005030612244898 0.018346938775510 255 0 0
0.026834693877551 -0.004438775510204 0.018346938775510 255 0 0
0.026834693877551 -0.003846938775510 0.018346938775510 255 0 0
0.026834693877551 -0.003255102040816 0.018346938775510 255 0 0
0.026834693877551 -0.002663265306122 0.018346938775510 255 0 0
0.026834693877551 -0.002071428571429 0.018346938775510 255 0 0
0.026834693877551 -0.001479591836735 0.018346938775510 255 0 0
0.026834693877551 -0.000887755102041 0.018346938775510 255 0 0
0.026834693877551 -0.000295918367347 0.018346938775510 255 0 0
0.026834693877551 0.000295918367347 0.018346938775510 255 0 0
0.026834693877551 0.000887755102041 0.018346938775510 255 0 0
0.026834693877551 0.001479591836735 0.018346938775510 255 0 0
0.026834693877551 0.002071428571429 0.018346938775510 255 0 0
0.026834693877551 0.002663265306122 0.018346938775510 255 0 0
0.026834693877551 0.003255102040816 0.018346938775510 255 0 0
0.026834693877551 0.003846938775510 0.018346938775510 255 0 0
0.026834693877551 0.004438775510204 0.018346938775510 255 0 0
0.026834693877551 0.005030612244898 0.018346938775510 255 0 0
0.026834693877551 0.005622448979592 0.018346938775510 255 0 0
0.026834693877551 0.006214285714286 0.018346938775510 255 0 0
0.026834693877551 0.006806122448980 0.018346938775510 255 0 0
0.026834693877551 0.007397959183673 0.018346938775510 255 0 0
0.026834693877551 0.007989795918367 0.018346938775510 255 0 0
0.026834693877551 0.008581632653061 0.018346938775510 255 0 0
0.026834693877551 0.009173469387755 0.018346938775510 255 0 0
0.026834693877551 0.009765306122449 0.018346938775510 255 0 0
0.026834693877551 0.010357142857143 0.018346938775510 255 0 0
0.026834693877551 0.010948979591837 0.018346938775510 255 0 0
0.026834693877551 0.011540816326531 0.018346938775510 255 0 0
0.026834693877551 0.012132653061224 0.018346938775510 255 0 0
0.026834693877551 0.012724489795918 0.018346938775510 255 0 0
0.026834693877551 0.013316326530612 0.018346938775510 255 0 0
0.026834693877551 0.013908163265306 0.018346938775510 255 0 0
0.026834693877551 0.014500000000000 0.018346938775510 255 0 0
0.026893877551020 -0.014500000000000 0.018938775510204 255 0 0
0.026893877551020 -0.013908163265306 0.018938775510204 255 0 0
0.026893877551020 -0.013316326530612 0.018938775510204 255 0 0
0.026893877551020 -0.012724489795918 0.018938775510204 255 0 0
0.026893877551020 -0.012132653061224 0.018938775510204 255 0 0
0.026893877551020 -0.011540816326531 0.018938775510204 255 0 0
0.026893877551020 -0.010948979591837 0.018938775510204 255 0 0
0.026893877551020 -0.010357142857143 0.018938775510204 255 0 0
0.026893877551020 -0.009765306122449 0.018938775510204 255 0 0
0.026893877551020 -0.009173469387755 0.018938775510204 255 0 0
0.026893877551020 -0.008581632653061 0.018938775510204 255 0 0
0.026893877551020 -0.007989795918367 0.018938775510204 255 0 0
0.026893877551020 -0.007397959183673 0.018938775510204 255 0 0
0.026893877551020 -0.006806122448980 0.018938775510204 255 0 0
0.026893877551020 -0.006214285714286 0.018938775510204 255 0 0
0.026893877551020 -0.005622448979592 0.018938775510204 255 0 0
0.026893877551020 -0.005030612244898 0.018938775510204 255 0 0
0.026893877551020 -0.004438775510204 0.018938775510204 255 0 0
0.026893877551020 -0.003846938775510 0.018938775510204 255 0 0
0.026893877551020 -0.003255102040816 0.018938775510204 255 0 0
0.026893877551020 -0.002663265306122 0.018938775510204 255 0 0
0.026893877551020 -0.002071428571429 0.018938775510204 255 0 0
0.026893877551020 -0.001479591836735 0.018938775510204 255 0 0
0.026893877551020 -0.000887755102041 0.018938775510204 255 0 0
0.026893877551020 -0.000295918367347 0.018938775510204 255 0 0
0.026893877551020 0.000295918367347 0.018938775510204 255 0 0
0.026893877551020 0.000887755102041 0.018938775510204 255 0 0
0.026893877551020 0.001479591836735 0.018938775510204 255 0 0
0.026893877551020 0.002071428571429 0.018938775510204 255 0 0
0.026893877551020 0.002663265306122 0.018938775510204 255 0 0
0.026893877551020 0.003255102040816 0.018938775510204 255 0 0
0.026893877551020 0.003846938775510 0.018938775510204 255 0 0
0.026893877551020 0.004438775510204 0.018938775510204 255 0 0
0.026893877551020 0.005030612244898 0.018938775510204 255 0 0
0.026893877551020 0.005622448979592 0.018938775510204 255 0 0
0.026893877551020 0.006214285714286 0.018938775510204 255 0 0
0.026893877551020 0.006806122448980 0.018938775510204 255 0 0
0.026893877551020 0.007397959183673 0.018938775510204 255 0 0
0.026893877551020 0.007989795918367 0.018938775510204 255 0 0
0.026893877551020 0.008581632653061 0.018938775510204 255 0 0
0.026893877551020 0.009173469387755 0.018938775510204 255 0 0
0.026893877551020 0.009765306122449 0.018938775510204 255 0 0
0.026893877551020 0.010357142857143 0.018938775510204 255 0 0
0.026893877551020 0.010948979591837 0.018938775510204 255 0 0
0.026893877551020 0.011540816326531 0.018938775510204 255 0 0
0.026893877551020 0.012132653061224 0.018938775510204 255 0 0
0.026893877551020 0.012724489795918 0.018938775510204 255 0 0
0.026893877551020 0.013316326530612 0.018938775510204 255 0 0
0.026893877551020 0.013908163265306 0.018938775510204 255 0 0
0.026893877551020 0.014500000000000 0.018938775510204 255 0 0
0.026953061224490 -0.014500000000000 0.019530612244898 255 0 0
0.026953061224490 -0.013908163265306 0.019530612244898 255 0 0
0.026953061224490 -0.013316326530612 0.019530612244898 255 0 0
0.026953061224490 -0.012724489795918 0.019530612244898 255 0 0
0.026953061224490 -0.012132653061224 0.019530612244898 255 0 0
0.026953061224490 -0.011540816326531 0.019530612244898 255 0 0
0.026953061224490 -0.010948979591837 0.019530612244898 255 0 0
0.026953061224490 -0.010357142857143 0.019530612244898 255 0 0
0.026953061224490 -0.009765306122449 0.019530612244898 255 0 0
0.026953061224490 -0.009173469387755 0.019530612244898 255 0 0
0.026953061224490 -0.008581632653061 0.019530612244898 255 0 0
0.026953061224490 -0.007989795918367 0.019530612244898 255 0 0
0.026953061224490 -0.007397959183673 0.019530612244898 255 0 0
0.026953061224490 -0.006806122448980 0.019530612244898 255 0 0
0.026953061224490 -0.006214285714286 0.019530612244898 255 0 0
0.026953061224490 -0.005622448979592 0.019530612244898 255 0 0
0.026953061224490 -0.005030612244898 0.019530612244898 255 0 0
0.026953061224490 -0.004438775510204 0.019530612244898 255 0 0
0.026953061224490 -0.003846938775510 0.019530612244898 255 0 0
0.026953061224490 -0.003255102040816 0.019530612244898 255 0 0
0.026953061224490 -0.002663265306122 0.019530612244898 255 0 0
0.026953061224490 -0.002071428571429 0.019530612244898 255 0 0
0.026953061224490 -0.001479591836735 0.019530612244898 255 0 0
0.026953061224490 -0.000887755102041 0.019530612244898 255 0 0
0.026953061224490 -0.000295918367347 0.019530612244898 255 0 0
0.026953061224490 0.000295918367347 0.019530612244898 255 0 0
0.026953061224490 0.000887755102041 0.019530612244898 255 0 0
0.026953061224490 0.001479591836735 0.019530612244898 255 0 0
0.026953061224490 0.002071428571429 0.019530612244898 255 0 0
0.026953061224490 0.002663265306122 0.019530612244898 255 0 0
0.026953061224490 0.003255102040816 0.019530612244898 255 0 0
0.026953061224490 0.003846938775510 0.019530612244898 255 0 0
0.026953061224490 0.004438775510204 0.019530612244898 255 0 0
0.026953061224490 0.005030612244898 0.019530612244898 255 0 0
0.026953061224490 0.005622448979592 0.019530612244898 255 0 0
0.026953061224490 0.006214285714286 0.019530612244898 255 0 0
0.026953061224490 0.006806122448980 0.019530612244898 255 0 0
0.026953061224490 0.007397959183673 0.019530612244898 255 0 0
0.026953061224490 0.007989795918367 0.019530612244898 255 0 0
0.026953061224490 0.008581632653061 0.019530612244898 255 0 0
0.026953061224490 0.009173469387755 0.019530612244898 255 0 0
0.026953061224490 0.009765306122449 0.019530612244898 255 0 0
0.026953061224490 0.010357142857143 0.019530612244898 255 0 0
0.026953061224490 0.010948979591837 0.019530612244898 255 0 0
0.026953061224490 0.011540816326531 0.019530612244898 255 0 0
0.026953061224490 0.012132653061224 0.019530612244898 255 0 0
0.026953061224490 0.012724489795918 0.019530612244898 255 0 0
0.026953061224490 0.013316326530612 0.019530612244898 255 0 0
0.026953061224490 0.013908163265306 0.019530612244898 255 0 0
0.026953061224490 0.014500000000000 0.019530612244898 255 0 0
0.027012244897959 -0.014500000000000 0.020122448979592 255 0 0
0.027012244897959 -0.013908163265306 0.020122448979592 255 0 0
0.027012244897959 -0.013316326530612 0.020122448979592 255 0 0
0.027012244897959 -0.012724489795918 0.020122448979592 255 0 0
0.027012244897959 -0.012132653061224 0.020122448979592 255 0 0
0.027012244897959 -0.011540816326531 0.020122448979592 255 0 0
0.027012244897959 -0.010948979591837 0.020122448979592 255 0 0
0.027012244897959 -0.010357142857143 0.020122448979592 255 0 0
0.027012244897959 -0.009765306122449 0.020122448979592 255 0 0
0.027012244897959 -0.009173469387755 0.020122448979592 255 0 0
0.027012244897959 -0.008581632653061 0.020122448979592 255 0 0
0.027012244897959 -0.007989795918367 0.020122448979592 255 0 0
0.027012244897959 -0.007397959183673 0.020122448979592 255 0 0
0.027012244897959 -0.006806122448980 0.020122448979592 255 0 0
0.027012244897959 -0.006214285714286 0.020122448979592 255 0 0
0.027012244897959 -0.005622448979592 0.020122448979592 255 0 0
0.027012244897959 -0.005030612244898 0.020122448979592 255 0 0
0.027012244897959 -0.004438775510204 0.020122448979592 255 0 0
0.027012244897959 -0.003846938775510 0.020122448979592 255 0 0
0.027012244897959 -0.003255102040816 0.020122448979592 255 0 0
0.027012244897959 -0.002663265306122 0.020122448979592 255 0 0
0.027012244897959 -0.002071428571429 0.020122448979592 255 0 0
0.027012244897959 -0.001479591836735 0.020122448979592 255 0 0
0.027012244897959 -0.000887755102041 0.020122448979592 255 0 0
0.027012244897959 -0.000295918367347 0.020122448979592 255 0 0
0.027012244897959 0.000295918367347 0.020122448979592 255 0 0
0.027012244897959 0.000887755102041 0.020122448979592 255 0 0
0.027012244897959 0.001479591836735 0.020122448979592 255 0 0
0.027012244897959 0.002071428571429 0.020122448979592 255 0 0
0.027012244897959 0.002663265306122 0.020122448979592 255 0 0
0.027012244897959 0.003255102040816 0.020122448979592 255 0 0
0.027012244897959 0.003846938775510 0.020122448979592 255 0 0
0.027012244897959 0.004438775510204 0.020122448979592 255 0 0
0.027012244897959 0.005030612244898 0.020122448979592 255 0 0
0.027012244897959 0.005622448979592 0.020122448979592 255 0 0
0.027012244897959 0.006214285714286 0.020122448979592 255 0 0
0.027012244897959 0.006806122448980 0.020122448979592 255 0 0
0.027012244897959 0.007397959183673 0.020122448979592 255 0 0
0.027012244897959 0.007989795918367 0.020122448979592 255 0 0
0.027012244897959 0.008581632653061 0.020122448979592 255 0 0
0.027012244897959 0.009173469387755 0.020122448979592 255 0 0
0.027012244897959 0.009765306122449 0.020122448979592 255 0 0
0.027012244897959 0.010357142857143 0.020122448979592 255 0 0
0.027012244897959 0.010948979591837 0.020122448979592 255 0 0
0.027012244897959 0.011540816326531 0.020122448979592 255 0 0
0.027012244897959 0.012132653061224 0.020122448979592 255 0 0
0.027012244897959 0.012724489795918 0.020122448979592 255 0 0
0.027012244897959 0.013316326530612 0.020122448979592 255 0 0
0.027012244897959 0.013908163265306 0.020122448979592 255 0 0
0.027012244897959 0.014500000000000 0.020122448979592 255 0 0
0.027071428571429 -0.014500000000000 0.020714285714286 255 0 0
0.027071428571429 -0.013908163265306 0.020714285714286 255 0 0
0.027071428571429 -0.013316326530612 0.020714285714286 255 0 0
0.027071428571429 -0.012724489795918 0.020714285714286 255 0 0
0.027071428571429 -0.012132653061224 0.020714285714286 255 0 0
0.027071428571429 -0.011540816326531 0.020714285714286 255 0 0
0.027071428571429 -0.010948979591837 0.020714285714286 255 0 0
0.027071428571429 -0.010357142857143 0.020714285714286 255 0 0
0.027071428571429 -0.009765306122449 0.020714285714286 255 0 0
0.027071428571429 -0.009173469387755 0.020714285714286 255 0 0
0.027071428571429 -0.008581632653061 0.020714285714286 255 0 0
0.027071428571429 -0.007989795918367 0.020714285714286 255 0 0
0.027071428571429 -0.007397959183673 0.020714285714286 255 0 0
0.027071428571429 -0.006806122448980 0.020714285714286 255 0 0
0.027071428571429 -0.006214285714286 0.020714285714286 255 0 0
0.027071428571429 -0.005622448979592 0.020714285714286 255 0 0
0.027071428571429 -0.005030612244898 0.020714285714286 255 0 0
0.027071428571429 -0.004438775510204 0.020714285714286 255 0 0
0.027071428571429 -0.003846938775510 0.020714285714286 255 0 0
0.027071428571429 -0.003255102040816 0.020714285714286 255 0 0
0.027071428571429 -0.002663265306122 0.020714285714286 255 0 0
0.027071428571429 -0.002071428571429 0.020714285714286 255 0 0
0.027071428571429 -0.001479591836735 0.020714285714286 255 0 0
0.027071428571429 -0.000887755102041 0.020714285714286 255 0 0
0.027071428571429 -0.000295918367347 0.020714285714286 255 0 0
0.027071428571429 0.000295918367347 0.020714285714286 255 0 0
0.027071428571429 0.000887755102041 0.020714285714286 255 0 0
0.027071428571429 0.001479591836735 0.020714285714286 255 0 0
0.027071428571429 0.002071428571429 0.020714285714286 255 0 0
0.027071428571429 0.002663265306122 0.020714285714286 255 0 0
0.027071428571429 0.003255102040816 0.020714285714286 255 0 0
0.027071428571429 0.003846938775510 0.020714285714286 255 0 0
0.027071428571429 0.004438775510204 0.020714285714286 255 0 0
0.027071428571429 0.005030612244898 0.020714285714286 255 0 0
0.027071428571429 0.005622448979592 0.020714285714286 255 0 0
0.027071428571429 0.006214285714286 0.020714285714286 255 0 0
0.027071428571429 0.006806122448980 0.020714285714286 255 0 0
0.027071428571429 0.007397959183673 0.020714285714286 255 0 0
0.027071428571429 0.007989795918367 0.020714285714286 255 0 0
0.027071428571429 0.008581632653061 0.020714285714286 255 0 0
0.027071428571429 0.009173469387755 0.020714285714286 255 0 0
0.027071428571429 0.009765306122449 0.020714285714286 255 0 0
0.027071428571429 0.010357142857143 0.020714285714286 255 0 0
0.027071428571429 0.010948979591837 0.020714285714286 255 0 0
0.027071428571429 0.011540816326531 0.020714285714286 255 0 0
0.027071428571429 0.012132653061224 0.020714285714286 255 0 0
0.027071428571429 0.012724489795918 0.020714285714286 255 0 0
0.027071428571429 0.013316326530612 0.020714285714286 255 0 0
0.027071428571429 0.013908163265306 0.020714285714286 255 0 0
0.027071428571429 0.014500000000000 0.020714285714286 255 0 0
0.027130612244898 -0.014500000000000 0.021306122448980 255 0 0
0.027130612244898 -0.013908163265306 0.021306122448980 255 0 0
0.027130612244898 -0.013316326530612 0.021306122448980 255 0 0
0.027130612244898 -0.012724489795918 0.021306122448980 255 0 0
0.027130612244898 -0.012132653061224 0.021306122448980 255 0 0
0.027130612244898 -0.011540816326531 0.021306122448980 255 0 0
0.027130612244898 -0.010948979591837 0.021306122448980 255 0 0
0.027130612244898 -0.010357142857143 0.021306122448980 255 0 0
0.027130612244898 -0.009765306122449 0.021306122448980 255 0 0
0.027130612244898 -0.009173469387755 0.021306122448980 255 0 0
0.027130612244898 -0.008581632653061 0.021306122448980 255 0 0
0.027130612244898 -0.007989795918367 0.021306122448980 255 0 0
0.027130612244898 -0.007397959183673 0.021306122448980 255 0 0
0.027130612244898 -0.006806122448980 0.021306122448980 255 0 0
0.027130612244898 -0.006214285714286 0.021306122448980 255 0 0
0.027130612244898 -0.005622448979592 0.021306122448980 255 0 0
0.027130612244898 -0.005030612244898 0.021306122448980 255 0 0
0.027130612244898 -0.004438775510204 0.021306122448980 255 0 0
0.027130612244898 -0.003846938775510 0.021306122448980 255 0 0
0.027130612244898 -0.003255102040816 0.021306122448980 255 0 0
0.027130612244898 -0.002663265306122 0.021306122448980 255 0 0
0.027130612244898 -0.002071428571429 0.021306122448980 255 0 0
0.027130612244898 -0.001479591836735 0.021306122448980 255 0 0
0.027130612244898 -0.000887755102041 0.021306122448980 255 0 0
0.027130612244898 -0.000295918367347 0.021306122448980 255 0 0
0.027130612244898 0.000295918367347 0.021306122448980 255 0 0
0.027130612244898 0.000887755102041 0.021306122448980 255 0 0
0.027130612244898 0.001479591836735 0.021306122448980 255 0 0
0.027130612244898 0.002071428571429 0.021306122448980 255 0 0
0.027130612244898 0.002663265306122 0.021306122448980 255 0 0
0.027130612244898 0.003255102040816 0.021306122448980 255 0 0
0.027130612244898 0.003846938775510 0.021306122448980 255 0 0
0.027130612244898 0.004438775510204 0.021306122448980 255 0 0
0.027130612244898 0.005030612244898 0.021306122448980 255 0 0
0.027130612244898 0.005622448979592 0.021306122448980 255 0 0
0.027130612244898 0.006214285714286 0.021306122448980 255 0 0
0.027130612244898 0.006806122448980 0.021306122448980 255 0 0
0.027130612244898 0.007397959183673 0.021306122448980 255 0 0
0.027130612244898 0.007989795918367 0.021306122448980 255 0 0
0.027130612244898 0.008581632653061 0.021306122448980 255 0 0
0.027130612244898 0.009173469387755 0.021306122448980 255 0 0
0.027130612244898 0.009765306122449 0.021306122448980 255 0 0
0.027130612244898 0.010357142857143 0.021306122448980 255 0 0
0.027130612244898 0.010948979591837 0.021306122448980 255 0 0
0.027130612244898 0.011540816326531 0.021306122448980 255 0 0
0.027130612244898 0.012132653061224 0.021306122448980 255 0 0
0.027130612244898 0.012724489795918 0.021306122448980 255 0 0
0.027130612244898 0.013316326530612 0.021306122448980 255 0 0
0.027130612244898 0.013908163265306 0.021306122448980 255 0 0
0.027130612244898 0.014500000000000 0.021306122448980 255 0 0
0.027189795918367 -0.014500000000000 0.021897959183673 255 0 0
0.027189795918367 -0.013908163265306 0.021897959183673 255 0 0
0.027189795918367 -0.013316326530612 0.021897959183673 255 0 0
0.027189795918367 -0.012724489795918 0.021897959183673 255 0 0
0.027189795918367 -0.012132653061224 0.021897959183673 255 0 0
0.027189795918367 -0.011540816326531 0.021897959183673 255 0 0
0.027189795918367 -0.010948979591837 0.021897959183673 255 0 0
0.027189795918367 -0.010357142857143 0.021897959183673 255 0 0
0.027189795918367 -0.009765306122449 0.021897959183673 255 0 0
0.027189795918367 -0.009173469387755 0.021897959183673 255 0 0
0.027189795918367 -0.008581632653061 0.021897959183673 255 0 0
0.027189795918367 -0.007989795918367 0.021897959183673 255 0 0
0.027189795918367 -0.007397959183673 0.021897959183673 255 0 0
0.027189795918367 -0.006806122448980 0.021897959183673 255 0 0
0.027189795918367 -0.006214285714286 0.021897959183673 255 0 0
0.027189795918367 -0.005622448979592 0.021897959183673 255 0 0
0.027189795918367 -0.005030612244898 0.021897959183673 255 0 0
0.027189795918367 -0.004438775510204 0.021897959183673 255 0 0
0.027189795918367 -0.003846938775510 0.021897959183673 255 0 0
0.027189795918367 -0.003255102040816 0.021897959183673 255 0 0
0.027189795918367 -0.002663265306122 0.021897959183673 255 0 0
0.027189795918367 -0.002071428571429 0.021897959183673 255 0 0
0.027189795918367 -0.001479591836735 0.021897959183673 255 0 0
0.027189795918367 -0.000887755102041 0.021897959183673 255 0 0
0.027189795918367 -0.000295918367347 0.021897959183673 255 0 0
0.027189795918367 0.000295918367347 0.021897959183673 255 0 0
0.027189795918367 0.000887755102041 0.021897959183673 255 0 0
0.027189795918367 0.001479591836735 0.021897959183673 255 0 0
0.027189795918367 0.002071428571429 0.021897959183673 255 0 0
0.027189795918367 0.002663265306122 0.021897959183673 255 0 0
0.027189795918367 0.003255102040816 0.021897959183673 255 0 0
0.027189795918367 0.003846938775510 0.021897959183673 255 0 0
0.027189795918367 0.004438775510204 0.021897959183673 255 0 0
0.027189795918367 0.005030612244898 0.021897959183673 255 0 0
0.027189795918367 0.005622448979592 0.021897959183673 255 0 0
0.027189795918367 0.006214285714286 0.021897959183673 255 0 0
0.027189795918367 0.006806122448980 0.021897959183673 255 0 0
0.027189795918367 0.007397959183673 0.021897959183673 255 0 0
0.027189795918367 0.007989795918367 0.021897959183673 255 0 0
0.027189795918367 0.008581632653061 0.021897959183673 255 0 0
0.027189795918367 0.009173469387755 0.021897959183673 255 0 0
0.027189795918367 0.009765306122449 0.021897959183673 255 0 0
0.027189795918367 0.010357142857143 0.021897959183673 255 0 0
0.027189795918367 0.010948979591837 0.021897959183673 255 0 0
0.027189795918367 0.011540816326531 0.021897959183673 255 0 0
0.027189795918367 0.012132653061224 0.021897959183673 255 0 0
0.027189795918367 0.012724489795918 0.021897959183673 255 0 0
0.027189795918367 0.013316326530612 0.021897959183673 255 0 0
0.027189795918367 0.013908163265306 0.021897959183673 255 0 0
0.027189795918367 0.014500000000000 0.021897959183673 255 0 0
0.027248979591837 -0.014500000000000 0.022489795918367 255 0 0
0.027248979591837 -0.013908163265306 0.022489795918367 255 0 0
0.027248979591837 -0.013316326530612 0.022489795918367 255 0 0
0.027248979591837 -0.012724489795918 0.022489795918367 255 0 0
0.027248979591837 -0.012132653061224 0.022489795918367 255 0 0
0.027248979591837 -0.011540816326531 0.022489795918367 255 0 0
0.027248979591837 -0.010948979591837 0.022489795918367 255 0 0
0.027248979591837 -0.010357142857143 0.022489795918367 255 0 0
0.027248979591837 -0.009765306122449 0.022489795918367 255 0 0
0.027248979591837 -0.009173469387755 0.022489795918367 255 0 0
0.027248979591837 -0.008581632653061 0.022489795918367 255 0 0
0.027248979591837 -0.007989795918367 0.022489795918367 255 0 0
0.027248979591837 -0.007397959183673 0.022489795918367 255 0 0
0.027248979591837 -0.006806122448980 0.022489795918367 255 0 0
0.027248979591837 -0.006214285714286 0.022489795918367 255 0 0
0.027248979591837 -0.005622448979592 0.022489795918367 255 0 0
0.027248979591837 -0.005030612244898 0.022489795918367 255 0 0
0.027248979591837 -0.004438775510204 0.022489795918367 255 0 0
0.027248979591837 -0.003846938775510 0.022489795918367 255 0 0
0.027248979591837 -0.003255102040816 0.022489795918367 255 0 0
0.027248979591837 -0.002663265306122 0.022489795918367 255 0 0
0.027248979591837 -0.002071428571429 0.022489795918367 255 0 0
0.027248979591837 -0.001479591836735 0.022489795918367 255 0 0
0.027248979591837 -0.000887755102041 0.022489795918367 255 0 0
0.027248979591837 -0.000295918367347 0.022489795918367 255 0 0
0.027248979591837 0.000295918367347 0.022489795918367 255 0 0
0.027248979591837 0.000887755102041 0.022489795918367 255 0 0
0.027248979591837 0.001479591836735 0.022489795918367 255 0 0
0.027248979591837 0.002071428571429 0.022489795918367 255 0 0
0.027248979591837 0.002663265306122 0.022489795918367 255 0 0
0.027248979591837 0.003255102040816 0.022489795918367 255 0 0
0.027248979591837 0.003846938775510 0.022489795918367 255 0 0
0.027248979591837 0.004438775510204 0.022489795918367 255 0 0
0.027248979591837 0.005030612244898 0.022489795918367 255 0 0
0.027248979591837 0.005622448979592 0.022489795918367 255 0 0
0.027248979591837 0.006214285714286 0.022489795918367 255 0 0
0.027248979591837 0.006806122448980 0.022489795918367 255 0 0
0.027248979591837 0.007397959183673 0.022489795918367 255 0 0
0.027248979591837 0.007989795918367 0.022489795918367 255 0 0
0.027248979591837 0.008581632653061 0.022489795918367 255 0 0
0.027248979591837 0.009173469387755 0.022489795918367 255 0 0
0.027248979591837 0.009765306122449 0.022489795918367 255 0 0
0.027248979591837 0.010357142857143 0.022489795918367 255 0 0
0.027248979591837 0.010948979591837 0.022489795918367 255 0 0
0.027248979591837 0.011540816326531 0.022489795918367 255 0 0
0.027248979591837 0.012132653061224 0.022489795918367 255 0 0
0.027248979591837 0.012724489795918 0.022489795918367 255 0 0
0.027248979591837 0.013316326530612 0.022489795918367 255 0 0
0.027248979591837 0.013908163265306 0.022489795918367 255 0 0
0.027248979591837 0.014500000000000 0.022489795918367 255 0 0
0.027308163265306 -0.014500000000000 0.023081632653061 255 0 0
0.027308163265306 -0.013908163265306 0.023081632653061 255 0 0
0.027308163265306 -0.013316326530612 0.023081632653061 255 0 0
0.027308163265306 -0.012724489795918 0.023081632653061 255 0 0
0.027308163265306 -0.012132653061224 0.023081632653061 255 0 0
0.027308163265306 -0.011540816326531 0.023081632653061 255 0 0
0.027308163265306 -0.010948979591837 0.023081632653061 255 0 0
0.027308163265306 -0.010357142857143 0.023081632653061 255 0 0
0.027308163265306 -0.009765306122449 0.023081632653061 255 0 0
0.027308163265306 -0.009173469387755 0.023081632653061 255 0 0
0.027308163265306 -0.008581632653061 0.023081632653061 255 0 0
0.027308163265306 -0.007989795918367 0.023081632653061 255 0 0
0.027308163265306 -0.007397959183673 0.023081632653061 255 0 0
0.027308163265306 -0.006806122448980 0.023081632653061 255 0 0
0.027308163265306 -0.006214285714286 0.023081632653061 255 0 0
0.027308163265306 -0.005622448979592 0.023081632653061 255 0 0
0.027308163265306 -0.005030612244898 0.023081632653061 255 0 0
0.027308163265306 -0.004438775510204 0.023081632653061 255 0 0
0.027308163265306 -0.003846938775510 0.023081632653061 255 0 0
0.027308163265306 -0.003255102040816 0.023081632653061 255 0 0
0.027308163265306 -0.002663265306122 0.023081632653061 255 0 0
0.027308163265306 -0.002071428571429 0.023081632653061 255 0 0
0.027308163265306 -0.001479591836735 0.023081632653061 255 0 0
0.027308163265306 -0.000887755102041 0.023081632653061 255 0 0
0.027308163265306 -0.000295918367347 0.023081632653061 255 0 0
0.027308163265306 0.000295918367347 0.023081632653061 255 0 0
0.027308163265306 0.000887755102041 0.023081632653061 255 0 0
0.027308163265306 0.001479591836735 0.023081632653061 255 0 0
0.027308163265306 0.002071428571429 0.023081632653061 255 0 0
0.027308163265306 0.002663265306122 0.023081632653061 255 0 0
0.027308163265306 0.003255102040816 0.023081632653061 255 0 0
0.027308163265306 0.003846938775510 0.023081632653061 255 0 0
0.027308163265306 0.004438775510204 0.023081632653061 255 0 0
0.027308163265306 0.005030612244898 0.023081632653061 255 0 0
0.027308163265306 0.005622448979592 0.023081632653061 255 0 0
0.027308163265306 0.006214285714286 0.023081632653061 255 0 0
0.027308163265306 0.006806122448980 0.023081632653061 255 0 0
0.027308163265306 0.007397959183673 0.023081632653061 255 0 0
0.027308163265306 0.007989795918367 0.023081632653061 255 0 0
0.027308163265306 0.008581632653061 0.023081632653061 255 0 0
0.027308163265306 0.009173469387755 0.023081632653061 255 0 0
0.027308163265306 0.009765306122449 0.023081632653061 255 0 0
0.027308163265306 0.010357142857143 0.023081632653061 255 0 0
0.027308163265306 0.010948979591837 0.023081632653061 255 0 0
0.027308163265306 0.011540816326531 0.023081632653061 255 0 0
0.027308163265306 0.012132653061224 0.023081632653061 255 0 0
0.027308163265306 0.012724489795918 0.023081632653061 255 0 0
0.027308163265306 0.013316326530612 0.023081632653061 255 0 0
0.027308163265306 0.013908163265306 0.023081632653061 255 0 0
0.027308163265306 0.014500000000000 0.023081632653061 255 0 0
0.027367346938776 -0.014500000000000 0.023673469387755 255 0 0
0.027367346938776 -0.013908163265306 0.023673469387755 255 0 0
0.027367346938776 -0.013316326530612 0.023673469387755 255 0 0
0.027367346938776 -0.012724489795918 0.023673469387755 255 0 0
0.027367346938776 -0.012132653061224 0.023673469387755 255 0 0
0.027367346938776 -0.011540816326531 0.023673469387755 255 0 0
0.027367346938776 -0.010948979591837 0.023673469387755 255 0 0
0.027367346938776 -0.010357142857143 0.023673469387755 255 0 0
0.027367346938776 -0.009765306122449 0.023673469387755 255 0 0
0.027367346938776 -0.009173469387755 0.023673469387755 255 0 0
0.027367346938776 -0.008581632653061 0.023673469387755 255 0 0
0.027367346938776 -0.007989795918367 0.023673469387755 255 0 0
0.027367346938776 -0.007397959183673 0.023673469387755 255 0 0
0.027367346938776 -0.006806122448980 0.023673469387755 255 0 0
0.027367346938776 -0.006214285714286 0.023673469387755 255 0 0
0.027367346938776 -0.005622448979592 0.023673469387755 255 0 0
0.027367346938776 -0.005030612244898 0.023673469387755 255 0 0
0.027367346938776 -0.004438775510204 0.023673469387755 255 0 0
0.027367346938776 -0.003846938775510 0.023673469387755 255 0 0
0.027367346938776 -0.003255102040816 0.023673469387755 255 0 0
0.027367346938776 -0.002663265306122 0.023673469387755 255 0 0
0.027367346938776 -0.002071428571429 0.023673469387755 255 0 0
0.027367346938776 -0.001479591836735 0.023673469387755 255 0 0
0.027367346938776 -0.000887755102041 0.023673469387755 255 0 0
0.027367346938776 -0.000295918367347 0.023673469387755 255 0 0
0.027367346938776 0.000295918367347 0.023673469387755 255 0 0
0.027367346938776 0.000887755102041 0.023673469387755 255 0 0
0.027367346938776 0.001479591836735 0.023673469387755 255 0 0
0.027367346938776 0.002071428571429 0.023673469387755 255 0 0
